# .PCD v0.7 - Point Cloud Data file format
VERSION 0.7
FIELDS x y z
SIZE 4 4 4
TYPE F F F
COUNT 1 1 1
WIDTH 1559
HEIGHT 1
VIEWPOINT 0 0 0 1 0 0 0
POINTS 1559
DATA ascii
8.6114101 -6.5122581 -1.9238709
8.6114101 -6.5122581 -1.9238709
11.123072 -6.5216665 -1.925
8.0895071 -6.3721213 -1.96
8.3423042 -6.2737498 -1.98625
7.8515801 -6.1188235 -1.9682353
8.2139606 -6.1083078 -1.972923
7.8515801 -5.7399998 -1.9847059
7.8515801 -5.7399998 -1.9847059
8.4747219 -4.6577778 -1.9155555
8.4747219 -3.7422223 -1.9288889
8.4747219 -3.7422223 -1.9288889
7.9687681 -3.3349254 -1.997612
7.9687681 -3.3349254 -1.997612
6.5110664 -3.2029269 -1.96
6.356041 -3.1311111 -1.9177777
7.5198231 -3.1470423 -1.9008451
7.8515801 -2.9070587 -1.9847059
8.4747219 -2.7111111 -1.9111111
4.3407111 -2.2081301 -1.9213008
8.6114101 -0.83999997 -1.9058064
8.6114101 -0.83999997 -1.9058064
8.6114101 0.063225806 -1.9118279
8.6114101 4.6154838 -1.9058064
8.6114101 4.6154838 -1.9058064
8.7525816 5.9580326 -1.9737705
8.3423042 -5.80125 -1.8375001
9.8871746 -5.7140741 -1.8148148
8.6114101 -5.1574192 -1.8877419
8.2139606 -5.0658464 -1.8006154
8.2139597 -4.5403075 -1.84
8.3423042 -4.2787499 -1.88125
8.0895071 -4.0642424 -1.8072727
8.0895071 -3.7418182 -1.8412122
8.0895071 -3.7418182 -1.8412122
7.6272492 -3.3039999 -1.88
7.4153814 -3.227778 -1.8355556
8.2139606 -3.1963077 -1.8178462
6.6738434 -2.779 -1.855
4.1549845 -2.6409907 -1.839111
4.1549845 -2.6409907 -1.839111
4.9609132 -2.6745076 -1.869326
5.1586466 -2.5105639 -1.8396565
8.0895071 -2.4860606 -1.8072727
8.0895071 -2.4860606 -1.8072727
8.0895071 -1.6715152 -1.8242425
8.0895071 -1.6715152 -1.8242425
8.3423042 -0.35874999 -1.81125
8.4747219 0.20444444 -1.8755555
8.4747219 0.20444444 -1.8755555
8.3423042 0.96249998 -1.8199999
8.4747219 1.3511112 -1.8044444
7.8515801 2.0450981 -1.8090196
7.8515801 2.0450981 -1.8090196
7.9687676 2.0811939 -1.8360199
8.2139606 2.352 -1.8781538
8.2139606 2.352 -1.8781538
8.0895071 3.0121212 -1.8072727
8.0895071 3.0121212 -1.8072727
8.0895071 3.0121212 -1.8072727
8.3423042 3.2112501 -1.8462501
8.3423042 3.2112501 -1.8462501
8.3423042 3.2112501 -1.8462501
8.4747219 4.8622222 -1.84
8.4747219 4.8622222 -1.84
8.2139606 5.2553844 -1.8350769
8.3423042 5.2849998 -1.86375
9.3667974 5.4133334 -1.8961403
9.3667974 5.4133334 -1.8961403
8.8984575 -6.8375998 -1.7677333
8.3423042 -6.4312501 -1.75875
8.3423042 -6.3481255 -1.745625
8.0895071 -6.1107874 -1.7563636
10.678149 -6.1711998 -1.7472
8.0895071 -6.0836363 -1.7733333
9.3667974 -5.4428067 -1.7242105
7.6272492 -5.4000001 -1.704
8.3423042 -5.2762499 -1.7850001
8.0895071 -4.5054545 -1.7818182
8.0895071 -4.0557575 -1.790303
7.3138008 -3.3906853 -1.7643837
7.3138008 -3.3906853 -1.7643837
6.5914502 -3.2148149 -1.7076544
8.0895071 -3.2581818 -1.790303
8.0895071 -3.1309092 -1.790303
5.3750281 -2.7342517 -1.7119218
5.4480348 -2.7714288 -1.7352381
6.6738434 -2.793 -1.743
7.1187658 -2.3221333 -1.7322667
7.8515801 -2.297647 -1.7705883
7.8515801 -2.297647 -1.7705883
7.8515801 -1.9334641 -1.7431374
7.7377892 -1.8342029 -1.7408695
7.6272492 -1.432 -1.72
7.6272492 -1.4 -1.72
7.7377892 -0.47884059 -1.7124637
7.7377892 -0.47884059 -1.7124637
7.7377892 -0.47884059 -1.7124637
7.7377892 -0.47884059 -1.7124637
7.9687686 -0.13373135 -1.7301491
7.7377892 0.36521739 -1.7368115
7.7377892 0.36521739 -1.7368115
7.7377892 0.4463768 -1.7205796
7.8515801 0.74117649 -1.7541176
7.8515801 0.74117649 -1.7541176
7.8515801 1.1842353 -1.7508236
7.4153814 1.8822222 -1.7033334
7.4153814 1.8822222 -1.7033334
7.4153814 1.8822222 -1.7033334
8.0895071 1.8327273 -1.7054546
8.0895071 1.8327273 -1.7054546
8.2139606 1.8350769 -1.7489231
7.7377892 2.8568115 -1.7205796
7.6272497 3.1645715 -1.7451429
7.6272497 3.1645715 -1.7451429
7.4153814 3.8499999 -1.7033334
7.4153814 3.8499999 -1.7033334
8.0895071 4.5903029 -1.7563636
7.7377892 5.3646379 -1.7611594
7.7377892 5.3646379 -1.7611594
7.7377892 5.3646379 -1.7611594
8.8984585 5.3586659 -1.7400004
8.6114101 5.5849462 -1.7131182
8.8984575 5.7026668 -1.7826667
8.7525816 -6.7222948 -1.6639345
8.3423042 -6.3670831 -1.6479168
9.8871756 -5.531179 -1.6602021
9.8871756 -5.4533334 -1.6607407
7.5198231 -4.9690142 -1.656338
7.5198231 -4.9690142 -1.656338
8.7525816 -4.8931146 -1.6616393
8.3423042 -4.6549997 -1.6012501
8.4747219 -4.6755552 -1.6088889
8.2139606 -4.574769 -1.611077
7.7377906 -4.4231877 -1.6745895
7.6272492 -4.0240002 -1.6720001
8.3423042 -3.61375 -1.61875
6.8449674 -3.4174359 -1.6584616
7.6272492 -3.3920002 -1.64
5.3390746 -2.6824 -1.6632
5.7409406 -2.6133332 -1.6739784
5.7409406 -2.6133332 -1.6739784
7.7377892 -2.5240579 -1.6962318
7.6272492 -2.4719999 -1.688
4.1711521 -2.3712499 -1.68875
7.2149658 -2.3837838 -1.6724324
8.2139606 -1.7316923 -1.611077
7.7377892 -1.1281159 -1.6962318
8.3423042 -0.62125003 -1.6012501
8.3423042 -0.56437504 -1.6143751
8.4747219 0.43555558 -1.6622223
8.6114101 0.95440865 -1.6589247
8.3423042 1.0587499 -1.61
8.6114101 1.1470968 -1.6227957
7.4153814 1.2677778 -1.6566666
8.7525816 1.3678689 -1.6432786
8.7525816 1.3678689 -1.6432786
7.7377892 1.5014492 -1.6150725
7.7377892 1.5014492 -1.6150725
8.3423042 2.9312501 -1.63625
8.3423042 2.9312501 -1.63625
8.0895071 3.249697 -1.6460606
7.2149658 3.6400001 -1.6724324
7.2149658 3.6400001 -1.6724324
7.2149658 3.6400001 -1.6724324
7.3138008 3.7052054 -1.6953424
9.0492792 5.4228249 -1.6325423
10.678149 -6.1711998 -1.5232
10.468774 -6.0501962 -1.5262746
8.3423042 -5.6350002 -1.5225
8.2139597 -5.5325127 -1.5421538
8.3423042 -5.4337502 -1.5545834
8.3423042 -5.1420836 -1.56625
7.8515801 -4.8011765 -1.5235294
8.0895071 -4.2636366 -1.5484848
8.0895071 -3.4703031 -1.5527272
8.7525816 -2.9285245 -1.5147541
5.99896 -2.5357304 -1.5667416
5.99896 -2.5357304 -1.5667416
5.4480352 -2.4971428 -1.5942857
7.7377892 -2.4212561 -1.5068598
4.9897895 -2.224299 -1.5648599
7.9687681 -2.2483582 -1.5412537
7.9687681 -2.2483582 -1.5412537
3.6569004 -1.9063014 -1.5380822
3.6569004 -1.9063014 -1.5380822
3.6569004 -1.9063014 -1.5380822
8.2139597 -1.170735 -1.5459828
8.2139597 -1.170735 -1.5459828
7.7377892 -0.66550726 -1.533913
8.3423042 -0.62124997 -1.58375
7.9687681 -0.40955225 -1.5128359
7.9687672 -0.23820896 -1.5326864
9.5340614 -0.050000001 -1.54
8.3423042 0.043749999 -1.5487499
8.4747219 0.026666667 -1.5733334
8.0895071 1.1648484 -1.5793941
7.7377892 1.5014493 -1.5501449
8.0895071 2.3163636 -1.5442424
7.2149658 2.5956757 -1.5059459
7.8515806 3.0788236 -1.5494118
8.0895071 3.2545455 -1.5381819
7.7377892 3.5791304 -1.5988406
7.7377892 4.0289855 -1.536232
8.4747229 4.5639505 -1.5437037
8.8984575 5.4039998 -1.568
9.0492792 5.4500341 -1.5680001
8.7525816 -6.7842622 -1.4229509
8.7525816 -6.7842622 -1.4229509
10.468774 -6.0501962 -1.4384314
8.6114101 -5.9341936 -1.4180645
10.073726 -5.8007545 -1.4369812
7.9687686 -5.433764 -1.4868325
7.9687686 -5.433764 -1.4868325
7.6272492 -5.3839998 -1.432
7.7377892 -5.0886955 -1.4202899
7.9687681 -4.2710447 -1.4626865
7.5198231 -3.6833801 -1.4276056
7.5198231 -3.6833801 -1.4276056
7.7377892 -3.3031883 -1.4608696
7.6272492 -3.2079999 -1.448
7.6272492 -3.1813335 -1.4426666
8.7525816 -2.9698362 -1.4596721
7.6272492 -2.6800001 -1.464
4.8759689 -2.3423085 -1.4115129
7.6272492 -2.28 -1.424
7.7377892 -1.8666666 -1.4365218
7.7377892 -1.8666666 -1.4365218
7.7377892 -1.1930435 -1.404058
7.7377892 -1.1930435 -1.404058
7.8515801 -0.23882353 -1.4741176
9.2053013 0.14482757 -1.4627587
9.2053013 0.14482757 -1.4627587
7.6272492 0.264 -1.4319999
7.6272492 0.264 -1.4319999
7.9687681 0.33265671 -1.4392835
7.8515801 0.66705883 -1.4164705
7.8515801 0.66705883 -1.4164705
7.8515801 1.0458823 -1.4247059
7.9687681 1.0715224 -1.4459702
7.4153814 1.763827 -1.444074
7.1187654 2.5859554 -1.4808888
7.6272492 2.648 -1.456
7.6272497 2.9502223 -1.4693333
7.5198231 3.3323944 -1.4236619
7.7377892 3.9849277 -1.4852173
7.8515801 4.1588235 -1.482353
8.4747229 4.553535 -1.4505051
8.8984585 4.9306664 -1.4493333
7.9687681 5.3559408 -1.442627
8.4747219 -6.5333328 -1.3659259
8.2139606 -6.3323078 -1.3353846
7.9687681 -6.1349254 -1.3456717
7.4153814 -2.9244444 -1.3766667
4.7248449 -2.2746902 -1.3628318
4.7248449 -2.2746902 -1.3628318
4.7248449 -2.2746902 -1.3628318
8.7525816 -1.624918 -1.3556285
8.7525816 -1.624918 -1.3556285
8.8984575 -1.2786666 -1.3253334
8.8984575 -1.2786666 -1.3253334
9.3667974 -1.051228 -1.3459649
9.3667974 -1.051228 -1.3459649
9.5340614 -1.09 -1.33
9.0492792 -0.65491527 -1.319322
9.0492792 -0.40813556 -1.3256496
8.3423042 -0.35874999 -1.39125
8.6114101 -0.15354839 -1.363871
8.2139606 0.19815385 -1.3181539
8.2139606 0.19815385 -1.3181539
8.4747219 0.18666667 -1.36
7.9687681 1.3456717 -1.3373134
7.9687681 1.3456717 -1.3373134
8.4747219 1.3244444 -1.3866667
7.1187658 1.8144 -1.3066666
7.415381 2.6574075 -1.3766667
8.0895071 2.8424242 -1.3660606
8.0895071 2.8424242 -1.3660606
9.5340614 5.2666669 -1.3433332
9.5340614 5.2666669 -1.3433332
9.0492792 5.6189833 -1.3667796
8.7525816 -6.6924591 -1.2393442
8.3423023 -6.2562499 -1.2493054
7.7377892 -5.9652176 -1.2904348
9.707408 -5.6509089 -1.2930909
9.707408 -5.6509089 -1.2930909
8.0895071 -5.0824242 -1.2387879
7.5198231 -4.9295774 -1.2856338
7.5198231 -4.9295774 -1.2856338
9.0492792 -3.0847456 -1.2528813
7.0250978 -2.7631578 -1.2894737
7.5198231 -2.4424412 -1.2488263
8.4747219 -1.5733334 -1.2177777
9.3667974 -1.0708772 -1.2870176
9.5340614 -0.25 -1.23
9.3667974 -0.18666667 -1.2673684
8.6114101 1.6529032 -1.2283871
7.5198221 1.836169 -1.2256901
7.5198221 1.836169 -1.2256901
7.8515801 2.2454903 -1.2600001
7.8515801 2.2454903 -1.2600001
7.8515792 2.5654731 -1.2463939
7.9687686 2.5617909 -1.2537313
8.4747219 3.1777778 -1.231111
7.9687686 4.2423882 -1.2286568
8.0895071 4.2848487 -1.2981818
8.0895071 -5.7442422 -1.1539394
7.4153814 -1.5011111 -1.1433333
7.4153814 -1.5011111 -1.1433333
7.4153814 -1.5011111 -1.1433333
8.2139606 -0.5083077 -1.12
8.2139606 -0.5083077 -1.12
8.7525816 -0.4457559 -1.1516212
9.0492792 -0.40813559 -1.1294916
8.4747219 0.16533333 -1.168
7.9687676 0.61014926 -1.1283582
7.7377892 1.3066665 -1.1524638
7.7377892 1.3066665 -1.1524638
7.5198231 2.3109858 -1.1357746
7.5198231 2.3109858 -1.1357746
7.5198231 2.3109858 -1.1357746
7.6272502 2.3371429 -1.1520001
7.8515801 2.9894118 -1.1529412
7.8515801 3.0388236 -1.1611764
7.8515801 3.0388236 -1.1611764
7.1187658 3.3226666 -1.1424
7.1187658 3.3226666 -1.1424
8.7525816 4.7829509 -1.175082
7.9687686 5.524776 -1.153433
7.9687686 5.524776 -1.153433
7.9687686 5.524776 -1.153433
9.5340614 5.6700001 -1.115
11.359733 -6.2791491 -1.012766
11.359733 -6.2791491 -1.012766
11.123072 -6.1950002 -1.0383333
7.8515801 -5.3282351 -1.0952941
8.3423042 -5.1799998 -1.00625
8.3423042 -5.1799998 -1.00625
8.4747219 -3.1733334 -1.0044445
8.4747219 -3.1733334 -1.0044445
6.5110664 -2.0009756 -1.0312195
6.6738434 -2.0510001 -1.071
6.8449674 -2.0700855 -1.0888888
8.0895071 -1.4509091 -1.0521212
8.0895071 -1.4509091 -1.0521212
8.8984575 -0.38266668 -1.064
7.9687681 1.3289551 -1.0464478
8.3423042 1.30375 -1.0587499
8.4747219 1.3244444 -1.0222223
8.4747219 1.3244444 -1.0222223
7.7377892 1.7489855 -1.0631884
8.0895071 2.3163636 -1.0266666
8.0895071 2.3163636 -1.0266666
7.5198231 2.6107042 -1.0647887
7.6272502 2.6376472 -1.0574117
8.4747219 2.96 -1.04
8.4747219 2.96 -1.04
8.6114111 3.2425807 -1.0477419
8.2139606 3.5305848 -1.0217847
8.2139606 3.5305848 -1.0217847
8.2139606 3.5305848 -1.0217847
8.2139606 3.5305848 -1.0217847
7.9687686 5.522388 -1.0471641
8.2139597 -5.6603084 -0.94769233
8.2139597 -5.6603084 -0.94769233
7.7377911 -5.5489173 -0.95815849
8.4747219 -5.5022221 -0.92444444
7.7377892 -5.4701447 -0.97391307
7.9687681 -4.9773135 -0.94865668
7.8515801 -0.91411763 -0.91411763
9.2053013 -0.99448276 -0.91724139
8.3423042 -0.88375002 -0.93624997
8.3423042 -0.88375002 -0.93624997
8.8984575 -0.66266668 -0.93200004
8.8984575 -0.66266668 -0.93200004
7.6272492 1.288 -0.93599999
8.4747219 1.3244444 -0.94222224
7.8515797 2.7382352 -0.9580391
8.4747219 2.96 -0.93333334
7.8515801 3.2200005 -0.96352941
8.3423042 3.2112501 -0.95375001
9.5340614 5.9299998 -0.94
9.5340614 5.9299998 -0.94
10.678149 -5.8800001 -0.88480002
10.678149 -5.8800001 -0.88480002
10.267451 -5.6753845 -0.85076922
10.267451 -5.6753845 -0.85076922
7.7377892 -5.536232 -0.86144924
7.6272492 -5.0479999 -0.88
7.9687681 -4.968575 -0.84265941
7.3138008 -4.8098631 -0.89753425
7.3138008 -4.8098631 -0.89753425
7.7377892 -0.90086955 -0.88463765
9.2053013 -0.99448276 -0.89793104
8.2139597 0.53046161 -0.83938456
8.3423042 0.51625001 -0.86624998
7.6272492 0.94399995 -0.85600001
7.7377892 1.0307246 -0.86028987
7.8515801 3.21451 -0.85921568
7.3138008 3.5671232 -0.84383559
7.8515801 3.6482353 -0.85647064
7.7377892 3.9849277 -0.82782608
7.7377892 3.9849277 -0.82782608
8.0895071 4.2387881 -0.84242427
8.0895071 4.2387881 -0.84242427
8.0895071 4.2387881 -0.84242427
8.2139606 4.3163075 -0.83569229
9.5340614 -5.5211115 -0.74555558
9.8871746 -5.4548149 -0.77777779
11.359733 -5.1353192 -0.77446806
11.359733 -5.1353192 -0.77446806
8.0895071 -5.0718179 -0.73393935
10.267451 -4.5984616 -0.72153848
10.267451 -4.5984616 -0.72153848
8.0895071 -1.1793939 -0.73818183
8.6114111 -0.36430106 -0.73763436
8.6114111 -0.36430106 -0.73763436
7.9687676 1.3205968 -0.75223881
7.8515801 1.7705883 -0.7164706
7.2149658 1.835135 -0.72270274
7.6272492 2.52 -0.74400002
7.6272492 2.52 -0.74400002
7.5198231 3.4152112 -0.79661971
7.8515801 3.6482353 -0.76588237
8.2139606 5.1950769 -0.7236923
8.2139606 5.1950769 -0.7236923
8.0895071 5.3878789 -0.76363635
8.4747219 -5.8400002 -0.64888889
7.8515801 -5.5505886 -0.69999999
9.2053013 -5.3586206 -0.68551725
7.6272492 -4.7600002 -0.69599998
7.6272492 -4.7600002 -0.69599998
7.8515792 -1.3552941 -0.65529412
7.7377892 -1.0956522 -0.62492752
8.6114111 -0.91225809 -0.65032262
8.4747219 -0.67259258 -0.63703704
7.9687681 -0.32597014 -0.63522387
8.0895071 -0.19515151 -0.68727273
8.3423042 0.70875001 -0.63874996
8.4747219 1.1111112 -0.68444443
7.7377892 1.7503381 -0.66821259
7.9687681 1.8137313 -0.61014926
7.5198226 2.0585916 -0.64676052
7.7377901 2.1374438 -0.64558625
7.5198221 3.8344851 -0.63721269
8.0895071 -5.2387881 -0.54909092
8.4747219 -5.2666669 -0.54222226
7.7377892 -5.1211591 -0.55188406
7.8515801 -5.1305881 -0.55176467
9.2053013 -4.1999998 -0.51172411
8.6114101 -3.9651613 -0.5148387
8.6114101 -3.9651613 -0.5148387
8.0895071 -1.4509091 -0.50060606
8.2139597 -0.54276919 -0.57409787
8.0895071 -0.059393939 -0.51757574
8.6114111 0.15354837 -0.53429276
7.8515801 1.0327059 -0.53694123
8.4747219 1.3244444 -0.5688889
7.5198231 1.7378403 -0.52845073
7.9687681 1.8137313 -0.59343284
7.0250983 3.4852631 -0.58210534
8.3423042 3.5962498 -0.56875002
8.0895071 4.2712731 -0.52096969
8.2139606 4.3438768 -0.56
9.2053013 5.0689654 -0.51172411
7.8515801 -5.5505881 -0.43647057
8.4747229 -5.2622223 -0.44444445
8.0895071 -1.5018182 -0.44969696
9.3667974 -0.93333334 -0.43228069
9.3667974 -0.93333334 -0.43228069
9.3667974 -0.93333334 -0.43228069
0.61249721 -0.41362962 -0.48310226
7.9687676 -0.37611941 -0.42626867
8.4747219 -0.15111111 -0.48888889
8.4747219 -0.15111111 -0.48888889
7.7377892 1.0307246 -0.43826085
7.5198231 2.2005634 -0.41014084
7.8515797 3.2316263 -0.4364706
7.8515801 3.3229411 -0.40764704
8.2139606 3.5409231 -0.47384617
7.4153819 3.6477776 -0.45111117
7.6272492 3.9119999 -0.40799999
8.2139597 5.4707694 -0.44799998
10.678149 -8.2544003 -0.3696
10.678149 -8.2544003 -0.3696
8.3423023 -5.7325964 -0.34125
7.8515797 -5.5505886 -0.34588233
8.0895071 -5.4345455 -0.36696967
7.6272492 -5.0479999 -0.384
7.7377892 -4.8343964 -0.30570051
8.2139606 -1.1803077 -0.31876922
8.3423042 -1.14625 -0.30625001
7.7377892 -1.0794203 -0.35710144
7.7377892 -1.0794203 -0.35710144
7.7377892 -1.0794203 -0.35710144
8.6114101 -0.91225809 -0.31612903
8.6114101 -0.91225809 -0.31612903
8.7525816 0.064262293 -0.33967215
8.0895071 0.19515151 -0.33939394
8.0895071 0.19515151 -0.33939394
8.0895071 0.19515151 -0.33939394
8.2139606 0.5083077 -0.37046155
8.0895071 1.3321213 -0.39030302
7.8515801 1.7788236 -0.30470589
7.9687681 1.8137313 -0.33432835
7.8515806 2.3841178 -0.33764708
7.9687676 2.8167164 -0.37611941
8.4747219 3.1911111 -0.37333333
8.4747219 3.1911111 -0.37333333
7.5198231 3.2890141 -0.3549296
7.8515797 3.5430064 -0.34771249
7.8515801 3.6482353 -0.36235294
7.8515801 3.6482353 -0.36235294
8.2139606 5.4707694 -0.35897437
9.0492792 5.742373 -0.31322035
8.0895071 -5.7442422 -0.22060606
7.7377892 -5.5431886 -0.25971013
9.2053013 -5.3586206 -0.25682756
9.2053013 -5.3586206 -0.25682756
8.6114101 -1.7251613 -0.20774193
8.6114101 -1.7251613 -0.20774193
7.8515801 -1.6058824 -0.2717647
8.4747219 -1.6977777 -0.22222222
8.2139597 -1.1774359 -0.24410258
8.7525816 -0.4314754 -0.22950821
8.7525816 -0.4314754 -0.22950821
9.0492792 -0.40813559 -0.28474575
9.2053013 -0.41517243 -0.23172414
8.474721 -0.14666668 -0.25333336
8.7525816 0.1147541 -0.24327868
7.7377892 1.2417392 -0.26782608
7.7377892 1.2417392 -0.26782608
8.6114101 1.3458065 -0.2167742
8.6114101 1.3458065 -0.2167742
7.8515801 2.6929412 -0.20588236
8.2139597 3.0175383 -0.252
8.2139597 3.0175383 -0.252
8.2139597 3.0175383 -0.252
7.9687681 4.1774325 -0.25074631
7.9687681 4.1774325 -0.25074631
7.9687681 4.1774325 -0.25074631
7.9687681 4.1774325 -0.25074631
9.0492792 -5.0020337 -0.14237288
6.0671301 -2.8763638 -0.11454545
8.7525816 -0.67475414 -0.13770492
8.7525816 -0.67475414 -0.13770492
8.6114111 -0.43580648 -0.14903226
8.0895071 1.060606 -0.11878788
7.7377892 1.6637682 -0.18666667
7.2149658 1.8389189 -0.17405406
7.2149658 1.8389189 -0.17405406
7.9687681 2.9838805 -0.16298507
8.2139597 2.9550774 -0.15302561
6.9338632 3.4836364 -0.10909091
7.0250974 3.53193 -0.1522807
7.0250974 3.53193 -0.1522807
7.6272492 3.9439998 -0.1136
7.9687681 5.4913435 -0.15880597
7.9687681 5.4913435 -0.15880597
7.9687667 -5.7458882 -0.044830386
10.073726 -5.3569813 -0.042264152
7.6272492 -5.0479999 -0.088
8.2139606 -5.0916924 -0.0086153848
8.3423042 -4.6287498 -0.043749999
8.3423042 -4.6287498 -0.043749999
8.3423042 -4.6287498 -0.043749999
6.9338632 -3.4496968 -0.07030303
8.6114101 -1.7251612 -0.081290327
7.8515801 -1.3258823 -0.057647061
7.8515801 -1.3258823 -0.057647061
8.4747219 -0.98666668 -0.0088888891
8.4747219 0.097777776 -0.017777778
8.8984575 0.18977778 -0.046666667
8.6114111 0.46064517 -0.054193549
8.7525806 0.43147543 -0.048524585
8.0895071 0.77212119 -0.050909091
8.0895071 1.1454545 -0.025454545
7.6272492 1.848 -0.040000003
8.2139606 2.6276922 -0.0086153848
8.2139606 2.6276922 -0.0086153848
7.9687676 2.8167164 -0.025074625
8.4747219 3.4044445 -0.035555556
8.3423042 3.5912499 -0.041249998
8.0895071 5.2012119 -0.042424243
8.0895071 5.2012119 -0.042424243
8.3423042 -5.9237499 0.07
9.5340614 -4.9233336 0.016666666
9.5340614 -4.8899999 0.0099999998
9.3667974 -4.7452631 0.029473685
9.3667974 -4.7452631 0.029473685
9.0492792 -4.6033897 0.0094915256
8.6114101 -1.7251613 0.07225807
8.4747229 -1.5733334 0.053333327
8.3423042 -0.88375002 0.035000004
8.8984575 -0.40133333 0.037333332
7.8515801 -0.37058824 0.082352936
9.0492792 -0.14237288 0.066440679
9.0492792 -0.14237288 0.066440679
8.3423042 1.14625 0.087499999
7.9687667 3.3362622 0.045134321
7.3137994 3.5458798 0.067860901
7.9687681 3.7026868 0.041791044
7.9687681 3.7026868 0.041791044
7.7377901 4.0563474 0.051942028
8.6114101 4.6154838 0.08129032
7.7377892 -5.5269566 0.13797101
7.7377892 -5.5269566 0.13797101
8.0895071 -5.5066667 0.16121212
8.2139597 -5.5448613 0.13956924
8.3423042 -5.3929162 0.17791666
8.3423042 -5.3929162 0.17791666
7.6272492 -5.0159993 0.14399999
7.9687681 -4.9463882 0.13205969
7.6272492 -4.7119999 0.112
7.9687681 -1.6298507 0.11701493
7.9687681 -1.6298507 0.11701493
8.0895071 -1.4169697 0.15272726
7.9687681 -1.1116418 0.19223881
8.6114101 -0.20774193 0.13548386
8.0895071 0.51757574 0.15272726
8.2139606 0.76676923 0.19815385
8.7525816 1.3678689 0.11016393
7.5198221 1.6342537 0.15774648
7.6272492 2.5226667 0.13333334
7.9687681 3.6157613 0.12202984
7.9687681 -4.8728356 0.24238805
8.6114101 -4.6516128 0.26193547
7.9687686 -1.116418 0.24955224
9.0492792 -1.0291526 0.26440677
9.0492792 -0.95627123 0.26338983
8.7525816 -0.39475411 0.27540982
8.4747229 0.93037039 0.25481483
7.8515801 1.7705883 0.28274509
7.7377911 2.1496427 0.24401931
8.0895071 4.3272729 0.29696971
8.2139606 5.4707694 0.28430769
9.0492792 5.4766102 0.24677965
10.678149 -8.2544003 0.30239999
7.9687686 -5.4411941 0.35104477
8.3423042 -1.70625 0.34125
8.3423042 -1.70625 0.34125
8.3423042 -0.37625003 0.33541667
8.4747219 -0.34666666 0.35555556
8.0895071 0.5062626 0.31959596
8.0895071 1.060606 0.35636362
7.6272492 1.288 0.352
7.8515801 1.26 0.30470589
8.0895071 1.8263637 0.36484849
8.0895071 1.8263637 0.36484849
7.5198231 2.2005634 0.32338026
7.5198231 2.2005634 0.32338026
8.6114101 3.2425807 0.34322581
8.6114101 3.2425807 0.34322581
8.6114101 3.2425807 0.34322581
7.6272492 3.5439999 0.31999999
7.5198231 3.8332393 0.31549296
7.8515801 4.1615686 0.34588239
7.9687681 4.2543283 0.36776119
8.3423042 4.5412502 0.39375001
8.3423042 4.5412502 0.39375001
9.0492792 5.4338984 0.37491524
7.4153814 -5.486445 0.45111114
7.5198231 -4.9295774 0.41802815
8.4747219 -1.4577777 0.47999999
7.9687686 -1.3582089 0.44298506
8.4747219 -1.2651851 0.44444445
7.9687681 -0.9277612 0.43462688
7.9687681 -0.9277612 0.43462688
9.0492792 -0.35118645 0.43796611
7.6272492 1.288 0.42399999
7.6272492 1.288 0.42399999
8.6114101 1.3458065 0.44980645
7.2149658 1.8389189 0.44951349
7.5198226 2.169014 0.44169012
7.1187658 3.2330666 0.43306667
7.1187658 3.2330666 0.43306667
7.5198221 3.267324 0.4456338
7.7377892 3.3356521 0.47072464
7.4153786 3.6378791 0.45181817
7.5198231 4.59831 0.40225351
7.5198231 4.59831 0.40225351
8.2139606 4.6724105 0.4508718
8.2139606 4.6724105 0.4508718
8.3423042 4.8431249 0.46375
8.7525816 5.0644803 0.46819672
8.8984575 5.1613336 0.45733333
8.6114101 5.3922582 0.46064517
8.6114101 5.3922582 0.46064517
8.6114101 5.4464517 0.46064517
8.8984575 5.5906668 0.47600001
8.8984575 5.5906668 0.47600001
9.2053013 5.5131035 0.41517243
9.2053013 5.5131035 0.41517243
8.3423042 5.6437502 0.41125
8.3423042 5.6437502 0.41125
8.6114101 -5.9341936 0.5148387
8.6114101 -5.9341936 0.5148387
8.4747219 -5.8400002 0.56000006
8.7525816 -5.6826229 0.52327871
8.7525816 -5.6826229 0.52327871
7.5198231 -4.9295774 0.56788731
7.7377892 -4.8452172 0.5762319
8.0895071 -1.4169697 0.54303026
9.2053013 -0.74344826 0.5245977
8.6114101 -0.60516131 0.56903225
9.2053003 -0.67724138 0.53655165
7.9687676 0.57671642 0.51542288
8.0895071 0.55905724 0.54020196
8.6114101 1.3458065 0.5148387
7.4153819 1.9211111 0.55222225
7.5198226 2.0585916 0.55211264
8.2139606 2.8689232 0.54276925
7.3138008 3.2909589 0.56767124
7.7377915 4.4456038 0.54840577
7.6272497 4.5120001 0.56
8.4747219 -6.5244446 0.62222219
7.9687681 -5.4345069 0.65862685
7.8515806 -5.3323531 0.63411766
7.8515806 -5.3323531 0.63411766
8.7525816 -1.7534426 0.64262295
8.6114101 -1.5987097 0.65333331
8.6114101 -0.40645161 0.65935487
8.6114101 -0.40645161 0.65935487
8.7525816 0.082622953 0.63344264
8.0895071 0.56339395 0.63975751
8.0895071 0.56339395 0.63975751
7.3138008 2.4726942 0.63671231
6.6738434 2.7650001 0.66500002
8.2139606 2.8689232 0.63466668
8.2139606 3.0929232 0.62030768
8.2139606 3.0929232 0.62030768
7.415381 3.3625927 0.61962962
8.2139606 3.5236924 0.67200005
8.2139606 3.5236924 0.67200005
8.2139606 3.5236924 0.67200005
7.3138008 4.3342466 0.69041097
8.0895071 4.3357577 0.67030305
8.0895071 4.3357577 0.67030305
7.8515792 4.7504473 0.64202356
7.8515792 4.7504473 0.64202356
7.7377911 5.3411913 0.65107894
7.8515801 5.3694115 0.6011765
7.8515806 5.4223523 0.61764705
7.8515806 5.4223523 0.61764705
9.0492792 -7.0522032 0.76881355
8.4747219 -5.5022221 0.71999997
8.2139606 -5.0916924 0.75815386
8.8984575 -1.7826667 0.7093333
7.9687681 -1.6131344 0.72716421
8.6114101 -1.3096774 0.75569892
8.0895071 -1.1454545 0.70424241
9.0492792 -0.9776271 0.71186441
9.0492792 -0.50305086 0.77830505
8.8984575 -0.38266668 0.7373333
8.0895071 0.44969696 0.78909093
8.0895071 1.5866667 0.72121215
8.0895071 1.5866667 0.72121215
6.2812643 2.2334118 0.75764704
6.2812643 2.2334118 0.75764704
6.5592966 2.3157122 0.78295451
7.9687686 2.3430846 0.74945271
7.9687686 2.3430846 0.74945271
8.3423042 3.5787499 0.74374998
7.5198231 4.1487322 0.7177465
7.5198231 4.1487322 0.7177465
7.9687681 4.6053729 0.79402983
7.9687681 4.6053729 0.79402983
8.0895071 5.0442424 0.78484851
8.3423042 -6.0462499 0.88375002
8.4747219 -6.0177779 0.86222219
8.2139597 -5.6258464 0.84430772
7.4153814 -4.8688889 0.89444447
7.6272492 -2.4200001 0.852
8.3423042 -1.67125 0.84000003
8.6114101 -1.3096774 0.81290323
9.0492792 -1.0345763 0.80677968
9.0492792 -1.0345763 0.80677968
7.8515801 0.30470589 0.88117647
8.0895071 1.3737739 0.85234165
7.9687676 2.1146269 0.86646765
7.3138008 2.8 0.88219178
7.9687686 3.9080598 0.86328357
7.737792 5.0455794 0.84355074
7.737792 5.0455794 0.84355074
8.2139606 5.1204104 0.81271791
8.0895071 5.4472728 0.85696965
8.2139606 5.5396924 0.87876922
8.4747219 -6.521482 0.98074073
8.0895071 -5.7654548 0.9460606
7.5198231 -5.3397183 0.97802818
7.6272497 -5.3920002 0.95000005
7.7377892 -2.4510145 0.9089855
8.3423042 -1.96875 0.95374995
8.3423042 -1.96875 0.95374995
7.2149658 -1.4908108 0.99135137
7.2149658 -1.4908108 0.99135137
8.2139606 -1.4646153 0.97353846
8.2139606 -1.4646153 0.97353846
8.6114101 -1.2193549 0.98451614
8.6114101 -1.2193549 0.98451614
6.43262 0.03373494 0.99180722
7.8515801 0.30470589 0.91411763
7.8515801 0.30470589 0.91411763
8.0895071 1.3745452 0.95030308
8.0895071 1.3745452 0.95030308
7.6272492 1.992 0.92000002
7.2149658 2.3989189 0.94594598
7.4153814 2.376111 0.95666665
7.6272497 2.4311111 0.93244445
7.7377892 2.4327538 0.92115945
7.7377892 2.4327538 0.92115945
7.9687681 2.8835821 0.91104478
7.9687681 2.8835821 0.91104478
8.0895071 2.9272728 0.94181818
7.5198231 4.7087326 0.97014087
7.5198231 4.7087326 0.97014087
8.4747219 -6.4977779 1.0933334
6.8449674 -3.6543589 1.0984615
6.8449674 -3.6543589 1.0984615
6.8449683 -3.1495857 1.0918342
7.2149658 -2.5048649 1.0972973
7.1187658 -2.0085332 1.0976
6.8449674 -1.8451282 1.0697436
9.5340614 -0.52999997 1.01
6.7583222 -0.2906329 1.0916455
8.2139606 0.59015381 1.0596924
8.2139597 1.4129231 1.0683078
7.9687681 1.8304478 1.036418
7.0250974 2.8302922 1.056959
7.1187658 3.0090666 1.008
7.2149658 3.0396397 1.0591794
7.737792 3.6585507 1.0608693
7.7377906 3.7211592 1.0428985
7.7377906 3.7211592 1.0428985
7.8515797 4.0215688 1.0637255
7.8515792 4.259706 1.0407354
7.7377892 4.3176813 1.0834783
7.8515792 4.3389702 1.0572058
7.9687686 4.3689551 1.0304477
9.3667974 -7.6140351 1.188772
9.3667974 -7.5354385 1.1101755
7.4153814 -6.0122223 1.1900001
8.6114111 -5.9281716 1.1501075
7.4153814 -4.6450624 1.1779014
7.4153814 -4.5966668 1.1822222
7.0250978 -3.9494739 1.1568421
7.0250978 -3.9494739 1.1568421
7.5198231 -2.8354931 1.1791549
7.5198231 -2.8354931 1.1791549
6.9338632 -2.6618183 1.1127273
7.9687686 -1.5420896 1.1492537
8.0895071 -1.5272726 1.1573333
7.3137994 -1.479452 1.1561644
6.8449678 -0.93189746 1.1874872
8.6114101 -0.91225809 1.1380645
7.5198231 -0.63887322 1.1909859
7.5198231 -0.63887322 1.1909859
7.5198231 0.13408451 1.1752113
7.4153819 0.94111115 1.1848149
8.3423042 1.09375 1.11125
8.4747229 1.1496297 1.1555556
7.1187658 2.6208 1.1237333
7.2149658 4.1999998 1.1654054
7.2149658 4.1999998 1.1654054
7.8515792 5.146235 1.1381178
7.7377911 5.3466024 1.1479551
9.707408 -7.962182 1.232
7.7377892 -5.3429952 1.2390338
7.6272497 -5.2447996 1.2479999
7.6272497 -5.2447996 1.2479999
7.4153814 -4.5966668 1.2055556
7.0250978 -3.8094738 1.2747369
6.5914502 -3.477531 1.2790123
7.3137994 -2.3499544 1.2631963
7.2149658 -2.2513514 1.2789189
7.2149658 -2.2513514 1.2789189
8.4747219 -2.1777778 1.2
7.3137999 -1.2504109 1.2615691
8.3423042 -1.246875 1.238125
8.2139606 -1.1544615 1.232
8.3423042 -1.1754167 1.23375
8.6114101 -0.91948384 1.2554839
7.6272492 0.13600001 1.2079999
7.6272492 0.28 1.224
7.1187663 0.44613332 1.2767999
7.2149658 0.44648647 1.2671471
7.4153814 0.94111109 1.2055556
7.8515801 0.99647057 1.2105882
8.3423042 1.09375 1.23375
7.9687686 1.5267662 1.2620895
7.4153819 2.8744442 1.2855556
8.0895071 4.9636364 1.2981818
8.0895071 4.9636364 1.2981818
8.6114101 -7.0180645 1.327742
8.2139606 -6.7372308 1.3267692
7.4153814 -5.6700001 1.3766667
7.4153814 -5.6700001 1.3766667
7.2149658 -5.4864864 1.3394594
7.3138008 -5.1627398 1.3578082
7.2149658 -5.0362163 1.3356757
7.2149658 -4.9718919 1.3545946
7.3138008 -4.871233 1.3884932
7.3138008 -4.871233 1.3884932
7.4153814 -4.5033336 1.3922222
7.0250978 -4.4357891 1.3042105
6.6738434 -3.1989999 1.323
6.6738434 -3.1989999 1.323
7.0250978 -2.6747367 1.311579
7.1187658 -1.7621334 1.3141333
7.2149658 -1.2183784 1.3091892
7.3138008 -0.82849312 1.3731507
7.3138008 -0.82849312 1.3731507
7.4153814 -0.36555555 1.3922222
7.4153814 -0.36555555 1.3922222
7.4153814 -0.36555555 1.3922222
7.4153814 -0.36555555 1.3922222
6.5340333 -0.17718761 1.3422344
7.6272502 1.2254544 1.3578182
7.6272502 1.2254544 1.3578182
7.7377901 1.2476417 1.3435575
7.6272492 2.392 1.3839999
7.5198231 2.4266665 1.3960563
7.7377906 3.6197107 1.3472463
7.9687676 4.2097511 1.3400995
7.8515792 4.6682353 1.3529412
9.8871746 -8.1199999 1.4622222
9.8871746 -8.1199999 1.4622222
9.5340614 -7.8199997 1.4300001
9.0492792 -7.4318643 1.4142373
9.0492792 -7.4318643 1.4142373
9.0492792 -7.4318643 1.4142373
9.3667974 -7.2800002 1.4049122
7.6272492 -5.8479996 1.432
6.43262 -5.1209641 1.4303615
6.43262 -5.1209641 1.4303615
7.6272492 -4.5040002 1.432
7.6272492 -4.5040002 1.432
7.4153814 -2.8077779 1.4233333
7.4153814 -2.7766666 1.4233333
7.4153814 -1.5477778 1.4077778
7.4153814 0.11666667 1.4855555
7.4153814 0.11666667 1.4855555
7.4153814 0.11666667 1.4855555
8.0895071 2.0575757 1.4721212
7.7377906 3.0608699 1.4515941
7.7377906 3.0608699 1.4515941
7.7377892 3.9578743 1.4798068
7.0250978 -3.5294738 1.54
7.0250983 -3.4852631 1.5498246
7.0250983 -3.4852631 1.5498246
7.3138008 -1.4882191 1.5265753
6.9338636 -0.083636358 1.5272727
7.4153814 0.11666667 1.5011111
7.9687681 0.64358211 1.5379105
7.9687681 0.64358211 1.5379105
7.9687686 1.5648425 1.5629849
7.5198231 4.2749295 1.5064789
7.5198231 4.2749295 1.5064789
7.6272492 4.7280002 1.592
7.2149658 -5.7324324 1.6686486
7.5198231 2.3346479 1.6247888
7.7377892 2.8872464 1.6657972
7.7377892 2.8872464 1.6657972
7.7377892 2.8872464 1.6657972
7.7377892 3.5520773 1.6150726
7.7377892 3.5520773 1.6150726
7.7377892 3.5520773 1.6150726
7.6272492 4.1199999 1.656
8.2139606 4.833231 1.6886153
8.0895071 4.9466667 1.6545454
7.9687676 5.524776 1.646567
7.7377892 1.0956522 1.7286956
7.5198231 4.4773707 1.7799062
7.9687686 -6.3773136 1.8304477
7.1187658 -5.5925331 1.8592
8.4747219 1.1644444 1.8933333
8.4747219 1.1644444 1.8933333
7.6272492 1.9120001 1.88
6.8449678 2.0748718 1.8566154
7.2149658 2.1567566 1.8767567
7.2149658 2.2021623 1.891892
7.5198231 2.2636619 1.8850704
7.5198231 2.2636619 1.8850704
7.5198231 2.2636619 1.8850704
7.6272492 3.832 1.808
7.6272492 3.832 1.808
7.6272492 3.832 1.808
7.4153814 5.0512342 1.876173
8.4747219 -6.8355556 1.9525925
8.0895071 -6.1684852 1.9373738
8.0895071 -6.1684852 1.9373738
7.1187658 -2.9194667 1.9936
7.1187658 -2.9194667 1.9936
7.5198231 2.7211268 1.9323944
7.4153814 3.01 1.9055556
7.5198231 3.3784037 1.9113616
7.9687676 3.4686568 1.9808955
7.7377901 3.8388405 1.9544663
8.0895071 4.3272729 1.9769697
7.9687686 4.4668655 1.9808956
7.9687681 4.9898505 1.9307463
8.0895071 5.0654545 1.9854546
7.5198231 5.213521 1.9166198
7.5198231 5.213521 1.9166198
7.5198231 5.213521 1.9166198
9.3667974 -7.5354385 2.0729825
7.6272492 -5.5840001 2.0799999
7.4153814 -4.938889 2.0844445
7.3138008 -4.4263015 2.0789042
7.3138008 -4.4263015 2.0789042
7.6272492 -2.2 2.0880001
7.6272492 -2.2 2.0880001
7.8515801 0.7164706 2.0835295
7.8515801 0.7164706 2.0835295
8.8984575 1.2226666 2.0486667
8.8984575 1.2226666 2.0486667
8.8984575 1.2226666 2.0486667
8.2139606 1.4043077 2.0676923
8.2139606 1.4043077 2.0676923
7.8515801 2.5941176 2.0011764
7.8515801 2.5941176 2.0011764
7.8515801 2.6105883 2.0011764
7.8515801 2.9290197 2.0011764
7.8515801 2.9290197 2.0011764
7.9687681 2.9838805 2.0310447
8.2139606 3.1532307 2.041846
7.9687676 3.4686568 2.0310447
7.9687681 4.0579104 2.0143282
7.9687681 4.1440001 2.0143282
7.4153814 4.2544446 2.03
7.4153814 4.2544446 2.03
7.8515801 4.4552941 2.0011764
7.5198231 4.629859 2.0743661
7.5198231 4.9138026 2.0901408
7.9687681 -5.8591046 2.198209
7.9687681 -5.6585073 2.198209
7.8515801 -5.575294 2.182353
7.9687681 -5.5749254 2.1814926
7.8515801 -5.3117647 2.1988235
7.8515801 -5.3117647 2.1988235
7.6272492 -5.0960002 2.1199999
7.4153819 -4.7708888 2.1585922
7.5198231 -3.1312675 2.169014
7.4153814 -2.7735555 2.1606667
7.4153814 -2.7735555 2.1606667
7.0250978 -2.5642104 2.0999999
7.0250978 -2.5642104 2.0999999
7.5198231 -2.4766197 2.1847887
7.5198231 -0.028920189 2.169014
7.3138008 0.12602741 2.1358905
7.7377892 0.12823188 2.1637101
7.1187654 0.66453332 2.1877334
7.9687681 1.0675713 2.155658
7.9687681 1.0675713 2.155658
7.9687681 1.0675713 2.155658
8.2139606 1.3353846 2.1452308
8.2139606 1.3353846 2.1452308
7.9687681 2.1647761 2.198209
7.9687681 2.1647761 2.198209
7.9687681 2.1647761 2.198209
8.8984575 -7.1960001 2.2119999
7.8515801 -5.2952943 2.2564704
7.5198231 -4.3774648 2.2163379
7.5198231 -4.3774648 2.2163379
7.9687681 -3.7695522 2.2232835
7.3138008 -3.3600001 2.2016439
7.3138008 -3.3600001 2.2016439
7.3138008 -3.3600001 2.2016439
7.3138008 -3.3600001 2.2016439
8.2139606 -2.6104615 2.283077
7.4153814 -1.5166667 2.2944446
7.4153814 -1.5166667 2.2944446
7.8515801 -1.4631373 2.2921569
7.8515801 -0.96352941 2.24
7.7377892 -0.37820289 2.290319
8.0895071 0.16121212 2.2569697
7.415381 0.91000003 2.2322223
7.415381 0.91000003 2.2322223
7.4153814 1.9988889 2.2711112
8.0895071 1.9090909 2.24
8.0895071 1.9090909 2.24
6.8449674 2.0748718 2.283077
7.9687681 4.7474627 2.2232835
8.6114101 4.8503227 2.24
8.6114101 4.8503227 2.24
8.6114101 4.8503227 2.24
8.7525816 4.883934 2.2767212
7.5198231 5.213521 2.2215965
7.8515801 5.3447061 2.2152941
8.2139606 -6.3667693 2.3476923
8.4747219 -6 2.3199999
8.4747219 -6 2.3199999
8.4747219 -6 2.3199999
8.4747219 -6 2.3199999
7.6272492 -5.6560001 2.352
8.4747219 -4.2399998 2.3911111
7.3138008 -3.8432877 2.3243835
7.3138008 -3.8432877 2.3243835
7.4153814 -3.8811111 2.3566666
8.0895071 -3.6230302 2.3418181
7.3138008 -3.5364385 2.3243835
7.6272492 -2.6960001 2.3759999
8.0895071 -2.4351516 2.3672726
7.1187658 -2.2213335 2.3818667
7.3138008 -1.3271233 2.3780823
8.0895071 -0.41575757 2.3672726
7.4153819 0.47444445 2.3566666
7.4153819 0.47444445 2.3566666
7.8515797 0.5397861 2.3515508
8.6114101 0.93483871 2.3529031
8.3423042 1.04125 2.30125
8.4747219 1.0488889 2.3199999
6.9338632 2.1309092 2.3636363
8.4747219 5.022222 2.3377779
8.4747219 5.022222 2.3377779
7.6272492 -5.2880001 2.408
7.6272492 -5.2880001 2.408
8.0895071 -4.9466667 2.4266667
8.0895071 -4.9466667 2.4266667
8.0895071 -4.6751513 2.4860606
7.9687686 -4.5671644 2.472836
8.2139606 -4.4196925 2.4438975
7.5198231 -4.1092958 2.4687324
7.6272492 -3.6160002 2.408
7.1187658 -3.4496002 2.4416001
7.1187658 -3.4496002 2.4416001
7.6272492 -3.464 2.448
7.5198231 -3.1391549 2.4845071
7.9687681 -2.8334329 2.4991045
8.3423042 -2.340625 2.454375
7.5198231 -0.78084505 2.4845071
7.4153814 -0.19444445 2.4888887
7.4153814 -0.19444445 2.4888887
7.7377892 0.1163285 2.4861836
8.6114111 1.3225806 2.4400003
7.6272492 2.3599999 2.4559999
7.7377892 2.3942029 2.4266667
7.4153814 4.0055556 2.4888887
8.0895071 4.5733333 2.4266667
7.3138008 4.8865752 2.4010959
7.4153814 -5.8099999 2.5899999
7.4153814 -5.8099999 2.5899999
7.4153814 -5.8099999 2.5899999
7.3138008 -4.7178082 2.5468493
7.7377901 -4.3452754 2.5613914
8.2139606 -4.1095386 2.507077
7.3138008 -3.5134249 2.5084932
7.9687681 -3.485373 2.524179
7.7377892 -3.1368115 2.5240579
8.4747219 -2.3733335 2.5226665
8.6114101 -2.1948388 2.592258
8.6114101 -2.1948388 2.592258
7.5198231 -0.76507044 2.531831
7.9687676 -0.66029853 2.5826867
8.7525816 -0.28459015 2.5429509
8.7525816 -0.28459015 2.5429509
7.8515792 0.042205881 2.560147
7.8515801 0.76588237 2.5364704
8.3423042 0.81375003 2.51125
8.6114101 1.327742 2.5380645
8.2139606 1.4043077 2.5156922
8.6114101 1.4180645 2.5741935
8.2139606 2.5587692 2.5156922
7.415381 3.4818518 2.5433333
8.3423042 4.0687499 2.5900002
8.3423042 4.0687499 2.5900002
8.3423042 4.0687499 2.5900002
7.4153814 4.207778 2.5433333
7.9687681 4.2543283 2.5994029
7.6272492 5.0640001 2.5039999
7.6272492 5.0640001 2.5039999
8.2139606 -6.0436926 2.632
7.4153814 -5.3588891 2.6677775
7.4153814 -3.2433333 2.6833334
7.6272497 -2.6365716 2.6891429
7.8515801 -2.5694118 2.6731765
7.6272492 -2.04 2.6159999
7.8515806 -1.6429412 2.622941
7.8515806 -1.5811764 2.635294
7.3138008 -1.4268494 2.6849313
7.8515801 -1.1825883 2.6583529
9.0492792 -0.52203387 2.6101694
9.0492792 -0.52203387 2.6101694
8.2139606 -0.46235898 2.633436
8.2139606 -0.2395077 2.6759384
7.9687681 0.062686563 2.6202984
8.0895071 1.6036364 2.6472728
8.0895071 1.6036364 2.6472728
8.0895071 1.8581818 2.638788
8.0895071 1.8581818 2.638788
7.4153819 2.5238891 2.656111
7.4153819 2.5238891 2.656111
7.4153819 2.5238891 2.656111
7.5198231 2.5581219 2.6895778
7.6272497 3.6340001 2.6399999
7.6272497 3.6340001 2.6399999
7.6272492 4.5840001 2.5999999
7.4153814 4.6550002 2.6872222
7.4153814 4.6550002 2.6872222
7.9687681 4.662209 2.672955
8.6114111 -6.2541933 2.7393548
8.6114111 -6.2541933 2.7393548
7.5198231 -5.5763378 2.7605634
7.7377892 -3.4675364 2.7269566
7.7377892 -3.075942 2.7107246
8.0895071 -2.9951515 2.7236364
7.9687681 -2.5994029 2.716418
7.9687681 -2.5994029 2.716418
8.2139606 -2.156718 2.7540512
8.3423042 -1.96875 2.79125
7.8515801 -1.2583529 2.7703528
8.7525816 -0.50491804 2.7632787
8.3423042 -0.46625 2.7437501
7.9687686 0.73671639 2.7546268
8.0895071 1.5527272 2.7151515
7.6272492 2.1359999 2.7471995
7.6272497 2.2539999 2.76
7.7377892 2.7621257 2.7783575
7.6272492 2.96 2.7199998
7.6272492 2.96 2.7199998
7.5198231 3.5729578 2.7132394
7.6272492 3.592 2.7386665
7.6272492 4.0560002 2.7279999
7.9687681 4.471642 2.7832835
7.6272492 5.224 2.776
7.7377915 -3.2493286 2.8560739
7.9687681 -3.000597 2.8
7.4153814 -2.8699999 2.8388889
7.1187663 -2.1877334 2.8472891
7.1187663 -2.1877334 2.8472891
7.7377892 -2.0208695 2.824348
7.5198221 -1.6123943 2.8202815
7.6272492 -1.192 2.8080001
8.7525816 -0.30295083 2.855082
7.9687676 0.66169161 2.8208959
8.2139606 1.1906462 2.8723693
8.3423042 1.28125 2.85625
7.7377892 1.4419323 2.8189373
7.9687676 1.6581401 2.8475776
8.0895071 2.9951515 2.8933334
8.0895071 2.9951515 2.8933334
8.0895071 2.9951515 2.8933334
8.0895071 2.9951515 2.8933334
8.0895071 2.9951515 2.8933334
8.3423042 4.0425 2.84375
8.0895071 4.1999998 2.8933334
8.2139606 4.7643075 2.8861539
8.0895071 4.9127274 2.8933334
8.3423042 4.92625 2.84375
8.4747219 4.9866667 2.8888888
8.0895071 -6.2703032 2.9668686
7.4153814 -5.7788887 2.978889
7.4153814 -5.7788887 2.978889
7.4153814 -5.7788887 2.978889
7.6272492 -3.5120001 2.9360001
7.8515801 -2.9235294 2.9400001
7.8515801 -2.9235294 2.9400001
7.5198221 -2.5408452 2.9577465
6.9338632 -1.9127272 2.9309092
7.1187663 -1.9562668 2.9717336
7.4153814 -1.9211111 2.9944444
7.9687681 -1.9558208 2.9838805
7.9687681 -1.9558208 2.9838805
7.6272492 0.77600002 2.9306667
7.9687681 0.77731341 2.958806
8.2139606 0.73230767 2.9033847
8.2139606 0.73230767 2.9033847
8.4747229 1.3264196 2.9639506
8.0895071 1.566303 2.9815757
7.7377906 1.842319 2.9528501
7.8515801 2.742353 2.9894118
7.7377892 3.2761352 2.9406765
8.3423042 4.7162499 2.9749999
7.7377892 4.9263768 2.9379711
7.9687681 5.0567164 2.9838805
8.2139606 -6.3667693 3.0239999
8.2139606 -5.9647179 3.0642052
7.5198231 -3.1470423 3.0642252
7.5198216 -2.554776 3.0423555
7.7377892 -2.2156522 3.0110145
7.8515801 -1.7672942 3.0256472
7.2149658 -1.6875676 3.0497298
7.2149658 -1.6875676 3.0497298
7.3138008 -1.2197261 3.0838356
8.2139606 1.0252308 3.0412307
7.7377892 1.4527537 3.0515943
7.7377892 1.4527537 3.0515943
7.7377892 1.4527537 3.0515943
7.9687681 1.8304478 3.0323579
8.4747219 2.248889 3.0488889
7.6272492 2.3440001 3.0480001
7.5198221 2.6107042 3.0523946
7.5198231 2.8946478 3.0366197
7.5198231 2.8946478 3.0366197
7.7377892 2.8 3.075942
8.6114101 3.4774194 3.0619354
7.9687681 3.6692538 3.0507464
8.3423042 4.2218747 3.0143752
8.3423042 4.2218747 3.0143752
7.8515792 4.5406418 3.0410693
7.8515792 4.5406418 3.0410693
7.1187654 -4.8607998 3.1285334
7.1187654 -4.8607998 3.1285334
8.0895071 -2.2230303 3.1139393
8.0895071 -2.1975758 3.1139393
7.3138008 -1.6799999 3.1682191
7.9687672 -1.227612 3.1374629
7.9687672 -1.227612 3.1374629
8.4747219 -0.75555557 3.1822224
7.0250983 0.046666667 3.1364911
7.3138008 0.68785387 3.1835616
7.3138008 0.82082194 3.1912327
7.3138008 0.82082194 3.1912327
7.8515792 1.4584706 3.1376472
8.4747219 1.7866666 3.1022222
7.5198226 2.585465 3.1249576
7.7377915 2.7571478 3.1473625
8.0895071 3.4193943 3.1365654
7.9687681 3.6692538 3.1092536
7.9687676 3.8364179 3.1355224
8.0895071 4.3866668 3.130909
8.2139606 4.350769 3.1618462
8.2139606 4.350769 3.1618462
8.6114101 4.7329035 3.120645
8.6114101 4.7329035 3.120645
7.9687676 5.0553231 3.1412933
7.9687676 5.0553231 3.1412933
7.8515806 -5.4764705 3.2611766
7.8515806 -5.4764705 3.2611766
7.0250983 -4.182807 3.2789476
7.4153814 -3.5233333 3.2744443
7.4153814 -3.5233333 3.2744443
7.5198226 -3.2290707 3.2574649
7.5198226 -3.2290707 3.2574649
7.5198226 -3.2290707 3.2574649
7.6272492 -0.18133332 3.2666671
7.2149658 -0.0075675678 3.2313514
7.3138008 -0.015342466 3.2832875
7.7377911 5.34516 3.2512467
7.9687681 5.524776 3.2262688
7.9687681 5.524776 3.2262688
8.0895071 -6.2618184 3.3345454
8.4747229 -6.166667 3.3533332
7.3138008 -5.7150683 3.3830137
7.415381 -4.1403699 3.3055556
7.9687681 -3.7026865 3.3850746
7.3138008 -1.8257535 3.3676713
7.7377892 -1.3878261 3.3275361
7.7377892 -1.3878261 3.3275361
7.8515801 -0.81529415 3.3023529
7.8515801 -0.81529415 3.3023529
7.6272492 0.68000001 3.3280001
8.2139606 1.6225642 3.3801024
8.2139606 1.6225642 3.3801024
7.9687681 1.9474628 3.3850746
7.9687681 1.9474628 3.3850746
7.9687681 2.4991045 3.3382688
7.9687681 2.8167164 3.3850746
7.4153814 3.01 3.3288889
7.4153814 3.01 3.3288889
7.6272492 5.2720003 3.3199999
7.6272492 5.2720003 3.3199999
7.9687681 -6.1599998 3.4017911
7.7377892 -4.6017389 3.4411592
7.7377892 -4.2933335 3.4005797
7.3138008 -3.7358904 3.490411
7.3138008 -3.7358904 3.490411
7.9687681 -3.6826267 3.4519405
7.8515801 -3.5988235 3.4011765
7.9687681 -3.246784 3.4549799
7.8515801 -2.5447059 3.4176471
7.9687681 -2.5408955 3.4602985
7.9687681 -1.9140298 3.4185076
7.4153814 -1.54 3.4922223
7.6272492 -1.3839999 3.4746666
7.6272492 -1.3839999 3.4746666
7.5198231 -0.93859154 3.4783099
7.6272492 -0.91600001 3.484
7.3138008 -0.49863014 3.4597261
7.3137999 0.26849315 3.4401994
7.3137999 0.26849315 3.4401994
7.3137999 0.26849315 3.4401994
7.7377892 0.26782608 3.4086957
7.8515801 0.26352942 3.4066668
7.8515801 0.26352942 3.4066668
7.9687681 0.7505672 3.4218509
7.9687681 0.7505672 3.4218509
8.0895071 0.73818183 3.4278789
7.5198221 0.91492957 3.4625354
7.5198221 0.91492957 3.4625354
7.5198231 1.9166198 3.4861972
7.9687686 2.0979102 3.4435823
7.9687681 2.8401196 3.4302089
7.6272492 3.3306665 3.4746666
8.4747219 -6.1422224 3.5822222
8.7525816 -4.3239346 3.5344262
8.0895071 -4.1660604 3.5212121
8.0895071 -3.4024243 3.580606
7.5198231 -2.8 3.5098591
7.5198231 -2.8 3.5098591
8.0895071 -1.6375757 3.5212123
8.2139597 -1.6493676 3.5466669
7.7377892 -1.5988406 3.5547826
7.7377892 -0.94550723 3.5831885
7.5198231 -0.63887328 3.5729578
7.415381 0.59370369 3.5648148
7.9687676 0.99462682 3.5188057
7.8515811 1.0572851 3.5468781
8.0895071 1.2472726 3.5678785
7.6272483 3.251334 3.541333
7.6272492 3.632 3.5706666
7.9687676 -5.5677609 3.6549256
7.6272492 -4.5712004 3.6431999
7.5198221 -3.2290702 3.6470985
7.7377915 -3.24595 3.6491845
7.4153814 -1.5166667 3.6322222
7.9687681 -1.3456717 3.6859701
7.6272492 -0.55199999 3.6240001
7.3138008 -0.23780821 3.620822
7.8515801 -0.2717647 3.6317647
7.8515797 0.56074864 3.669198
8.0895071 1.1793939 3.6349092
7.7377901 2.2436888 3.6543875
7.6272492 3.3199999 3.648
8.0895071 4.2296968 3.6272726
7.8515801 -4.6858826 3.7964706
8.4747219 -3.3688889 3.7066667
8.4747219 -2.6533334 3.7066667
7.4153814 -1.47 3.7877777
7.6272497 -1.3648 3.7344003
7.3138008 -0.63671231 3.7895889
7.8515806 -0.64852941 3.7573528
7.4153819 0.31666666 3.7433336
7.6272497 0.92799991 3.744
7.7377915 1.7483448 3.7294886
7.6272497 2.2320001 3.77
7.6272492 5.2880001 3.76
8.0895071 5.5066667 3.750303
8.2139606 -5.8498459 3.8855386
8.2139606 -5.7464619 3.8769231
8.2139606 -5.7464619 3.8769231
7.9687681 -5.4562387 3.8598206
8.3423042 -3.8587501 3.8412499
8.3423042 -3.8587501 3.8412499
8.3423042 -3.8587501 3.8412499
8.3423042 -3.8587501 3.8412499
7.8515797 -2.969281 3.8440526
8.6114101 -2.0864515 3.8929033
8.6114101 -2.0864515 3.8929033
8.2139606 -1.1803077 3.8855386
8.2139606 -1.1803077 3.8855386
7.8515801 -1.0211765 3.8129411
7.2149658 -0.63378376 3.8575675
7.2149658 -0.63378376 3.8575675
7.5198226 -0.41014084 3.8621597
7.6272492 -0.41999999 3.8599999
7.6272497 -0.35111108 3.8284445
7.9687686 -0.045970149 3.8635819
7.9687686 -0.045970149 3.8635819
7.4153814 0.3188889 3.8616664
8.0895071 1.4727274 3.8799996
7.6272492 2.7920001 3.8639998
7.6272492 2.904 3.848
7.6272492 2.904 3.848
7.6272492 5.2880001 3.816
8.3423033 5.3462501 3.8587499
7.8515792 -5.2294116 3.9601471
7.5198226 -5.1598873 3.973634
7.4153819 -5.083333 3.9611111
8.0895071 -4.6581817 3.9200001
7.7377892 -1.955942 3.9362319
7.6272492 -1.6720002 3.9600003
8.3423042 -1.18125 3.9637499
7.7377892 0.41391304 3.9037681
7.5198231 0.63098592 3.9909859
7.5198231 0.63098592 3.9909859
8.0895071 1.5018182 3.9454546
7.4153814 3.6011112 3.9433334
8.0895071 4.1660604 3.979394
8.3423042 -6.1462502 4.0562501
7.3138008 -5.0154524 4.0243287
7.8515801 -4.6035295 4.0929413
8.6114101 -3.0799999 4.0916128
8.4747219 -2.9866667 4.062222
8.4747219 -2.9866667 4.062222
7.7377892 -2.7675362 4.0173912
7.7377892 -2.7675362 4.0173912
7.7377892 -2.7675362 4.0173912
7.7377901 0.14977603 4.0793672
7.7377896 0.21913043 4.0841227
8.0895071 4.2113128 4.092525
7.8515801 5.432549 4.043529
7.8515801 5.432549 4.043529
8.4747219 -6.149333 4.1297779
7.7377911 -5.0540676 4.1548219
7.7377901 -4.6812754 4.1586084
8.2139606 -4.505846 4.1784616
7.5198231 -4.1408453 4.1408448
7.4153819 -4.0833335 4.1533332
8.2139606 -3.9630768 4.1267691
8.2139606 -3.9630768 4.1267691
8.0895071 -3.1478789 4.1830301
7.8515797 -3.0305882 4.1505885
8.0895071 -3.0969696 4.1830301
7.7377892 -2.9866667 4.1959419
7.7377892 -2.7675362 4.1715941
8.4747219 -2.6400001 4.1191111
8.4747219 -2.6400001 4.1191111
8.6114101 -2.3032258 4.1458063
7.6272492 -1.928 4.1760001
7.8515801 2.3470588 4.1670589
7.6272492 3.832 4.184
7.8515801 -5.1470585 4.2452941
8.3423042 -4.5762501 4.2962499
8.3423042 -4.5762501 4.2962499
8.8984575 -3.164 4.2280002
8.2139606 -2.9723077 4.299077
5.5042005 -2.476701 4.2894845
8.3423042 -2.0912499 4.2787499
7.9687686 -1.8161193 4.2519407
8.8984575 -1.3906667 4.2093334
8.8984575 -1.3906667 4.2093334
8.2139606 0.42215386 4.281846
8.2139606 0.42215386 4.281846
8.0895071 1.1236364 4.247273
8.2139597 1.1630769 4.256
8.3423042 1.194375 4.2481251
7.9687681 1.4961194 4.2125373
7.9687681 1.4961194 4.2125373
7.9687681 1.4961194 4.2125373
7.9687681 1.4961194 4.2125373
7.6272497 3.852 4.2220001
8.8984575 -6.4306664 4.3773332
8.2139606 -6.3323078 4.3392816
8.6114101 -6.3135486 4.3083873
8.2139597 -6.2547698 4.3478971
8.3423042 -5.4512501 4.3137498
8.3423042 -5.4512501 4.3137498
8.0895071 -4.1462626 4.3272729
8.3423042 -2.4412501 4.3225002
8.4747219 -2.1244445 4.3644443
7.4153814 -1.8744445 4.332222
8.6114101 -1.0387096 4.3264518
7.5198226 -0.48112679 4.3301406
8.2139606 0.42215386 4.3450255
7.7377892 0.59246379 4.3826084
8.8984575 -6.4306664 4.4239998
8.8984575 -6.4306664 4.4239998
7.8515801 -6.0529413 4.4882355
7.5198226 -5.7119999 4.4374084
7.5198226 -5.7119999 4.4374084
7.415381 -4.0833335 4.4722219
7.415381 -4.0833335 4.4722219
7.415381 -4.0833335 4.4722219
8.4747219 -3.0133333 4.4533334
7.8515801 -2.8082354 4.4141178
7.8515801 -2.8082354 4.4141178
7.6272492 0.63200003 4.4879999
8.3423042 3.0799999 4.4712501
